ply
format ascii 1.0
element vertex 1439
property float x
property float y
property float z
property uchar red
property uchar green
property uchar blue
end_header
-4.46901 -9.90443  5.57418 0 0 0
 -6.3619 -9.45202  5.18146 0 0 0
-9.35362   -15.31  3.82064 0 0 0
-2.44827 -10.9111  5.81755 0 0 0
  -5.838 -9.82036  5.26512 0 0 0
-6.46382 -9.69093  5.12992 0 0 0
-6.24753 -9.78448  5.16914 0 0 0
-6.49621 -9.76507  5.11228 0 0 0
  -2.363 -10.7582  5.86462 0 0 0
-3.71788 -10.5763  5.62276 0 0 0
-3.68855 -10.6348  5.62085 0 0 0
-3.98373 -12.3361  5.39222 0 0 0
-6.39375 -6.20826  5.68391 0 0 0
-5.15873 -6.51974  5.84228 0 0 0
-3.04302 -17.0737  5.09634 0 0 0
-3.90895 -7.02049  6.12189 0 0 0
-2.71295 -14.5887  5.33733 0 0 0
-6.74126 -6.61933  5.55362 0 0 0
-2.32676  -11.216  5.84742 0 0 0
 -6.7622 -6.70701   5.5322 0 0 0
-6.74911 -6.77388  5.51397 0 0 0
-6.19467 -6.99632  5.63097 0 0 0
-6.17585  -7.0573  5.61878 0 0 0
-5.51781 -7.18915  5.73577 0 0 0
-4.57281 -7.78471   5.8861 0 0 0
-2.74502 -15.5774  5.26958 0 0 0
-5.57929 -7.66729  5.65464 0 0 0
 -2.4379 -13.3241  5.44716 0 0 0
-4.22682 -8.29922   5.8916 0 0 0
-2.43557 -13.8023  5.47905 0 0 0
-4.17443 0.654261  7.37238 0 0 0
-5.83823  -8.1219  5.51503 0 0 0
 -8.3845 -12.9979   4.2642 0 0 0
 1.10267 -9.88087  6.93671 0 0 0
 -2.9432 -9.09262   5.9767 0 0 0
0.639238 -9.93198   6.8049 0 0 0
-6.03766 0.581236  6.82333 0 0 0
-6.07467 -8.56027   5.3995 0 0 0
-8.93857 -14.5058   3.9866 0 0 0
0.872291 -10.1289  6.85475 0 0 0
 -3.0652 -10.5917   5.7197 0 0 0
-6.01601 -8.62667  5.40467 0 0 0
-4.12961 -9.03595  5.77137 0 0 0
-6.79964 -8.50281  5.20413 0 0 0
-6.23004 -8.77419  5.32804 0 0 0
-1.23401 -9.91878  6.27728 0 0 0
0.621894 -10.6019  6.68578 0 0 0
-6.35319  -9.0552  5.25296 0 0 0
-6.93719 -8.92082  5.10748 0 0 0
-7.25905 -8.84768  5.01578 0 0 0
-2.24729 0.851621  7.87471 0 0 0
-6.11816 -9.14945  5.28944 0 0 0
-10.1228 -18.8936  3.30809 0 0 0
-5.26228 -2.79872    6.479 0 0 0
-2.69251  -9.8914  5.89678 0 0 0
-6.43162 -9.09743  5.22321 0 0 0
-0.306128  -10.4962   6.46603 0 0 0
-4.21352 0.730188  7.38039 0 0 0
-6.11362 -9.19261  5.28749 0 0 0
-9.95693 -18.3648   3.3852 0 0 0
-5.32338 -9.40336  5.44307 0 0 0
-2.94506 -9.91154   5.8423 0 0 0
 -1.5802 -12.1754  5.84251 0 0 0
-0.165289  -10.7393   6.45135 0 0 0
-4.71607 0.704224  7.20805 0 0 0
-6.17639 -9.42895  5.23454 0 0 0
-9.31436 -15.7123  3.75876 0 0 0
-6.10603 -9.56929  5.22676 0 0 0
-2.32843 -10.4928  5.91303 0 0 0
0.302193 -11.3312   6.4713 0 0 0
 -2.4636 0.862462  7.83409 0 0 0
 -6.2984 -9.91229  5.13634 0 0 0
-9.81418 -17.4289  3.49155 0 0 0
-2.58888 -10.7554  5.80303 0 0 0
-7.32878 -9.64076  4.88111 0 0 0
-5.88418 -10.0359  5.23661 0 0 0
0.861865 -4.05973   7.7112 0 0 0
-3.90292  -10.568   5.6313 0 0 0
-6.42222  -5.6389  5.77603 0 0 0
-6.72864 -5.74002  5.70193 0 0 0
-4.10972 -6.23962  6.19832 0 0 0
-6.87369 -5.84106  5.63596 0 0 0
-5.86386  -6.0658  5.85195 0 0 0
-3.74981 -6.37541  6.25236 0 0 0
-6.63786 -5.97998  5.67754 0 0 0
-3.99704 -6.44059  6.16625 0 0 0
-3.84839 -6.48185  6.21537 0 0 0
-6.60734 -6.05692  5.66156 0 0 0
-6.53831 -6.11366  5.67447 0 0 0
-6.77092 -6.14221  5.62278 0 0 0
  1.0173 -4.13378  7.76243 0 0 0
-3.28793 -6.73338  6.16114 0 0 0
-6.43993 -6.25091  5.66849 0 0 0
-6.23167 -6.36933  5.70544 0 0 0
-5.28782 -6.65865  5.88195 0 0 0
-5.27529 -6.94092  5.82785 0 0 0
-6.17394 -6.85518  5.66645 0 0 0
-0.192089  -7.95445   6.86957 0 0 0
 -0.3036 -7.96704  6.82996 0 0 0
-4.45668 -7.66328  5.93192 0 0 0
-5.50154 -7.53269  5.69708 0 0 0
 1.87345 -6.51492  7.66934 0 0 0
-7.30828 -7.30873  5.27598 0 0 0
-6.94069 -7.50251  5.33692 0 0 0
-3.34345 -3.29547  6.81732 0 0 0
0.0538786  -8.91594   6.79596 0 0 0
-2.85719 -3.30558  6.94041 0 0 0
-3.73804 -8.22634  5.98229 0 0 0
-1.10989 -3.56421  7.30478 0 0 0
-3.70495 -8.24575  5.98086 0 0 0
-5.60632 -7.87601  5.60935 0 0 0
-3.57496 -8.31469  6.00001 0 0 0
-5.73442 -7.93683  5.56338 0 0 0
-7.01999  -7.6784  5.29206 0 0 0
-3.22277 -8.50715  6.02933 0 0 0
 1.45752 -4.46773  7.82803 0 0 0
-1.50492 -8.87347  6.37373 0 0 0
-5.62213 -8.05754  5.57262 0 0 0
-3.68083 -8.45391  5.95295 0 0 0
 2.33365 -5.55726  7.91519 0 0 0
-5.74003 -8.05516  5.54544 0 0 0
-6.75491 -7.95112  5.32665 0 0 0
 2.32629 -6.24147  7.83003 0 0 0
-6.42445 -8.07431   5.4083 0 0 0
1.60474 -6.2674 7.64971 0 0 0
-1.52128 -9.09719  6.32568 0 0 0
-1.40189 -6.03427  6.87022 0 0 0
-6.72024 -8.16117  5.29806 0 0 0
-5.85956 -8.36188  5.47247 0 0 0
-4.72252 -8.63793  5.73258 0 0 0
-5.14564 -13.5088  5.07679 0 0 0
0.0246448  -9.69605   6.68058 0 0 0
-3.07973  -3.2071   6.8974 0 0 0
0.573484 -9.88001   6.7962 0 0 0
-3.33061 -3.33666  6.82773 0 0 0
-5.95783 -8.55426  5.43098 0 0 0
-2.68009 -9.23686  6.00091 0 0 0
-5.91725 -8.67552  5.41728 0 0 0
-1.91801  -4.0044  7.05449 0 0 0
-1.01329 -9.75832  6.37359 0 0 0
-4.56206 -4.13963  6.42006 0 0 0
-1.21032  -9.8244  6.29206 0 0 0
-7.20455 -8.59011  5.07038 0 0 0
-0.147778  -10.1884   6.55105 0 0 0
 2.37949 -6.25007  7.83642 0 0 0
-6.06622 -8.87547  5.32932 0 0 0
-0.620833   -6.0634   6.80793 0 0 0
-6.90748 -8.72915  5.14444 0 0 0
-6.30453 -8.92713  5.29195 0 0 0
-6.34328 -8.92555  5.28024 0 0 0
-0.0477368   -10.3373    6.54499 0 0 0
 0.06143 -6.52259  7.16696 0 0 0
-4.14534 -9.44606  5.71007 0 0 0
-7.24234 -8.79363  5.03004 0 0 0
-6.05527 -9.09447   5.3128 0 0 0
-6.40769 -9.02695  5.24673 0 0 0
-3.83546 -4.77166  6.50073 0 0 0
-6.75395  -9.0189   5.1485 0 0 0
-7.11413 -7.36243    5.282 0 0 0
-7.25414  -8.8916  5.01931 0 0 0
 -6.2409 -9.51525  5.24529 0 0 0
-6.94861 -8.98527  5.09128 0 0 0
-8.22169 -9.39437  4.72086 0 0 0
-3.06411 -9.88541  5.82541 0 0 0
-6.51466 -9.18481  5.20222 0 0 0
-0.466712  -10.5488   6.37529 0 0 0
-7.89294 -6.62033  5.18367 0 0 0
-3.36554 -9.90307  5.77097 0 0 0
-6.41854 -9.25815  5.20581 0 0 0
-8.34178 -8.30198  4.78395 0 0 0
-3.20092  -9.9996  5.78374 0 0 0
-6.16017 -9.35716  5.24819 0 0 0
-4.33178 -9.78895  5.61452 0 0 0
-6.11315 -9.41164  5.24842 0 0 0
-6.47205 -9.36992  5.18504 0 0 0
-6.42801 -9.39778  5.18232 0 0 0
-0.919586  -10.7616   6.23844 0 0 0
-0.336816  -10.9418   6.36346 0 0 0
-2.43577  -10.421  5.88713 0 0 0
-1.05234 -7.70504  6.64958 0 0 0
-7.08353 -9.37218  4.99916 0 0 0
-5.47892 -9.87661  5.37209 0 0 0
-6.64032 -9.59651   5.1041 0 0 0
-4.10536 -9.70658  5.67981 0 0 0
-3.29062 -10.3512  5.69947 0 0 0
-7.50605 -9.37836   4.8953 0 0 0
-0.964656  -11.0156    6.1881 0 0 0
  2.33729 0.0731543   8.82156 0 0 0
-2.66758 -10.6152  5.80162 0 0 0
-7.71964 -19.0936  3.83389 0 0 0
-0.796937  -11.1623   6.20934 0 0 0
-3.63823 -10.4572  5.60488 0 0 0
-7.15279 -5.95781  5.57225 0 0 0
-7.53587 -9.55727  4.86706 0 0 0
 -2.5565 -10.7274  5.81153 0 0 0
-7.44067 -9.59084  4.88072 0 0 0
0.337242 -11.4911  6.45097 0 0 0
-6.71508 -9.82029   5.0586 0 0 0
-6.45913 0.115123  6.61108 0 0 0
-4.59893 -10.3344  5.48162 0 0 0
-8.95972 -19.4463  3.54367 0 0 0
-5.42297 -10.1915   5.3545 0 0 0
 -8.8606 -16.7761  3.71399 0 0 0
-5.61217 -10.1568   5.3055 0 0 0
-4.95182 -10.3414  5.46842 0 0 0
-2.51451 -10.8675  5.80854 0 0 0
0.172995 -11.5771  6.40622 0 0 0
-3.43382 -10.6575  5.62324 0 0 0
-4.00485 -6.05141  6.24917 0 0 0
 -1.1524 -10.1085  6.25382 0 0 0
-6.08435 -5.72224  5.84275 0 0 0
-8.45799  -8.9701  4.75732 0 0 0
-6.48197 -5.69473    5.738 0 0 0
 -8.4008 -9.10328  4.73473 0 0 0
 -4.0087 -6.31989  6.16761 0 0 0
-5.89461 -6.08603  5.84606 0 0 0
-3.93437 -6.88659  6.13784 0 0 0
-6.66563 -6.51444  5.57542 0 0 0
-1.92002 -7.37474  6.53102 0 0 0
-5.99205 -6.77107  5.71784 0 0 0
-5.37612 -6.88745  5.82182 0 0 0
-0.843735  -11.9564   5.90733 0 0 0
-2.91967 -7.30616  6.16409 0 0 0
0.0219554  -12.2638   6.26972 0 0 0
-1.78763 -7.61217  6.51866 0 0 0
-4.83247 -11.2978  5.39987 0 0 0
-0.512416  -7.91553   6.79069 0 0 0
-3.01913 -11.6854  5.62928 0 0 0
-3.60717 -7.66687  6.08687 0 0 0
-0.297215  -12.3774   6.11444 0 0 0
-2.07015 -7.98105  6.38741 0 0 0
-0.43892 -12.3675  6.11489 0 0 0
-1.53768 -8.16218  6.49899 0 0 0
-2.37097 -12.0576  5.71754 0 0 0
-0.997391  -8.32251   6.60649 0 0 0
-3.59403 -7.91421  6.06045 0 0 0
-3.17694  -6.8966  6.16167 0 0 0
-3.52113 -8.11409  6.04773 0 0 0
-2.18293 -7.43135  6.44086 0 0 0
 -4.0633 -8.02997  5.96944 0 0 0
-0.708857  -8.27691   6.68407 0 0 0
-5.73283 -7.70248  5.61154 0 0 0
-3.85225 -8.23303  5.96607 0 0 0
-3.65138  -8.3298  5.97995 0 0 0
-6.22537 -7.84773  5.47732 0 0 0
-5.82288 -7.96183  5.55475 0 0 0
-3.6849 -8.4146 5.95907 0 0 0
-5.71536 -8.08139  5.56538 0 0 0
-8.68613  -9.1293  4.67117 0 0 0
0.579714  -9.4703  6.85621 0 0 0
 -1.3349 -9.04813  6.39066 0 0 0
-0.980153  -9.27663   6.45402 0 0 0
 0.1166 -9.5854 6.71848 0 0 0
-0.910234  -9.35411   6.46676 0 0 0
0.444181    -9.68  6.78693 0 0 0
-0.670638  -9.44794   6.49459 0 0 0
0.106262 -9.67363  6.70669 0 0 0
 1.05269 -9.98795  6.91261 0 0 0
-6.13874 -8.47633  5.40741 0 0 0
-3.24453 -11.7815  5.47356 0 0 0
-3.00429 -9.12325  5.95165 0 0 0
0.391318  -9.8989  6.73397 0 0 0
-0.0821039   -12.6971    6.20383 0 0 0
 1.05393 -10.1195  6.89899 0 0 0
-7.20308 -5.74524  5.57183 0 0 0
-4.69005 -8.93613  5.70744 0 0 0
-7.67075 -5.85753  5.45279 0 0 0
-5.20935 -8.84505   5.6054 0 0 0
-5.14919 -8.87756  5.61247 0 0 0
-3.64435 -6.91757  6.18846 0 0 0
 0.74833 -10.1473  6.80443 0 0 0
-4.80129 -8.95662   5.6805 0 0 0
-6.23365 -8.71935  5.34041 0 0 0
-5.93722 -8.79172  5.39143 0 0 0
-7.41448 -8.46103  5.03834 0 0 0
-7.38248 -8.48043  5.04663 0 0 0
 0.76072 -10.3274  6.76565 0 0 0
-5.04453 -9.06035  5.60172 0 0 0
-1.33275 -9.88254  6.25681 0 0 0
-4.03723 -9.35683   5.7398 0 0 0
-6.26157 -8.94371  5.29828 0 0 0
-1.64742 -9.03634  6.21562 0 0 0
 -3.9766 -9.45004  5.73978 0 0 0
-2.16416 -8.94707  6.14267 0 0 0
0.592724 -10.5242  6.69491 0 0 0
-6.13083 -9.01139  5.30723 0 0 0
-3.06297 -9.75386  5.84471 0 0 0
-0.0732039   -10.5681     6.5072 0 0 0
-1.11284 -10.3314  6.26191 0 0 0
-5.45896 -9.37323  5.42177 0 0 0
-5.17438  -9.4618  5.48027 0 0 0
-8.53799 -9.29853  4.68309 0 0 0
-1.23939 -10.3323  6.20308 0 0 0
-0.343573  -10.9683   6.35862 0 0 0
0.22705 -10.732  6.5667 0 0 0
-6.20752 -9.28967  5.24667 0 0 0
 -6.2765 -9.33475  5.20942 0 0 0
-5.08938 -9.65408  5.51282 0 0 0
-6.92371 -9.19369   5.0698 0 0 0
    1.06917 -0.00753092     8.50135 0 0 0
-2.46456 -10.2308  5.90002 0 0 0
-7.62753 -18.9981   3.8583 0 0 0
-5.61109 -2.75882  6.37662 0 0 0
-2.90939  -10.318  5.78593 0 0 0
0.429623 -11.1582  6.53429 0 0 0
 -2.3654 -10.4844  5.90307 0 0 0
-7.29499 -9.34279   4.9447 0 0 0
-4.34946 -2.73598  6.64396 0 0 0
-2.89157 -10.3729  5.78301 0 0 0
 -5.3926 -9.92919  5.37882 0 0 0
-3.51101 -10.3464  5.64208 0 0 0
-6.09282 -11.2344  5.08582 0 0 0
-1.56323  -10.663  5.79013 0 0 0
-7.92565 -10.8412  4.60064 0 0 0
-3.17795 -10.5908  5.68656 0 0 0
-4.70349  -10.278  5.45559 0 0 0
-3.41972 -10.5532  5.64004 0 0 0
-7.55078 -9.63948  4.84641 0 0 0
-4.60846 -10.3914  5.46995 0 0 0
-6.20974 -10.0234   5.1499 0 0 0
-4.91993 -10.4146  5.47025 0 0 0
-1.22325 -7.78285  6.59215 0 0 0
-4.06337 -10.6034  5.58157 0 0 0
-8.60888 -6.68953  5.10313 0 0 0
-3.63524 -3.70097  6.70836 0 0 0
-6.77503 -13.6277  4.59546 0 0 0
 -1.8325 -4.38021  7.01676 0 0 0
-7.19192 -15.6069  4.25581 0 0 0
0.686709 -4.25048  7.67068 0 0 0
-7.45515 -16.9469  4.07053 0 0 0
1.30488 -4.7205 7.76704 0 0 0
-5.26613 -3.37891  6.41619 0 0 0
 -6.8806 -14.3253  4.43847 0 0 0
-4.30191 -3.94638  6.49377 0 0 0
 -6.8775 -14.5183  4.40846 0 0 0
 -3.4127 -3.46557  6.78623 0 0 0
-2.09915 -4.65842  6.91164 0 0 0
-4.39529 -13.7201  5.20385 0 0 0
-2.09419   1.4712  8.03931 0 0 0
-2.19057 -3.31867  7.09723 0 0 0
-7.70067 -18.5252  3.86599 0 0 0
-4.39423  1.29046  7.41405 0 0 0
-3.57013 -3.35571  6.76411 0 0 0
-7.98873 -19.6772  3.72912 0 0 0
-6.50841  1.06345  6.70487 0 0 0
-3.78016 -4.05801  6.61953 0 0 0
-7.46346 -17.6257  4.01327 0 0 0
1.68222 -5.5703 7.76737 0 0 0
 -8.5163 -7.11792  5.04069 0 0 0
-3.16355  1.34538  7.74175 0 0 0
-3.55641 -4.20525  6.62079 0 0 0
-4.29255 -3.06442   6.6493 0 0 0
 1.13411 -4.48619  7.76589 0 0 0
-1.22767 -4.05127  7.21939 0 0 0
-1.51862 -4.04473  7.14809 0 0 0
-2.81942  1.25672  7.80195 0 0 0
-1.28207 -4.88926  7.10605 0 0 0
 1.57961 -5.82275  7.70788 0 0 0
-5.81674  1.00721  6.93388 0 0 0
-2.34723 -3.45712  7.03227 0 0 0
-5.48906  1.01476  7.04351 0 0 0
-1.44747 -3.68603   7.1972 0 0 0
-3.40616  1.12238  7.66302 0 0 0
-1.03257 -3.87396   7.2914 0 0 0
-6.65001  1.00577  6.69194 0 0 0
-1.30598 -3.87948  7.23015 0 0 0
 -6.4479 -14.0957  4.58952 0 0 0
1.17776 1.47491 8.75279 0 0 0
-4.28729 -3.17524  6.63396 0 0 0
-4.42717  1.13562  7.38779 0 0 0
-4.27364 -3.27407  6.62047 0 0 0
-3.69561  1.15834   7.5764 0 0 0
-3.57087  -3.6208  6.72904 0 0 0
-6.73461 0.918132  6.67606 0 0 0
-3.92117 -3.79244  6.61587 0 0 0
0.23603 1.09499 8.47627 0 0 0
-2.82065 -3.19147   6.9654 0 0 0
-5.69299 -13.0608  4.94946 0 0 0
0.505503 0.778381  8.41099 0 0 0
-4.24145 -2.93338  6.67862 0 0 0
-3.40345 0.944904  7.60499 0 0 0
-3.87374 -3.09173  6.74609 0 0 0
 -6.4762 -16.4879  4.35501 0 0 0
-2.63353 0.895048  7.79148 0 0 0
-1.52955 -3.67111  7.18348 0 0 0
1.59173 1.14976 8.51236 0 0 0
-4.37339  -3.0249  6.63824 0 0 0
-6.05275 -14.5101  4.65659 0 0 0
-4.30943 0.756223  7.34643 0 0 0
-1.99288 -3.89832  7.05731 0 0 0
-4.31402 0.797017  7.35046 0 0 0
-3.56936 -3.53148  6.74126 0 0 0
0.840377 -4.77076  7.62778 0 0 0
0.185238 -4.61422  7.49399 0 0 0
-4.02638 -16.1567  5.02135 0 0 0
1.56023 1.02357 8.46901 0 0 0
-3.30794 -3.72271  6.76401 0 0 0
-2.09782  -4.1155  6.98818 0 0 0
  1.9908 -5.28478   7.8847 0 0 0
-6.43579 -18.8843  4.12265 0 0 0
-5.45705  0.95814  7.03643 0 0 0
-3.09832 -3.96628  6.78137 0 0 0
 1.42835 0.825477  8.71331 0 0 0
2.24918 -5.4363 7.93246 0 0 0
 2.82007 -3.29231  8.35193 0 0 0
-3.17863 -4.03408   6.7481 0 0 0
0.883187 -5.12717   7.6063 0 0 0
-5.29305 -13.2708  5.04172 0 0 0
-0.312426  0.988412   8.38467 0 0 0
-3.69457 -3.94143  6.63998 0 0 0
  1.1539 0.792746  8.65954 0 0 0
 2.20923 -5.55908  7.89302 0 0 0
 1.55918 -4.11845  7.93703 0 0 0
-5.62584 -16.6436  4.60496 0 0 0
-1.74843 -3.71839  7.13564 0 0 0
-8.55885 -13.5898  4.10892 0 0 0
-4.20211 0.470622  7.30716 0 0 0
-5.62268 -2.79466  6.43998 0 0 0
-1.93573 -3.77819  7.08285 0 0 0
-4.91933 -12.9872  5.17657 0 0 0
-1.28528 -3.96675  7.21723 0 0 0
-5.07693 -14.0251   5.0097 0 0 0
-1.36417  -4.0831  7.18139 0 0 0
-5.75439 -17.1823  4.52055 0 0 0
-4.54463 0.731801  7.25565 0 0 0
-2.15991 -3.89806  7.00983 0 0 0
 1.40655 -4.84699  7.75752 0 0 0
-0.576435  -4.33506   7.33917 0 0 0
-4.89758   0.7761  7.19562 0 0 0
-4.44636 -3.33255  6.54719 0 0 0
 -6.6628 -17.6756  4.20186 0 0 0
 -4.0529 0.245423  7.32691 0 0 0
-1.03262 -4.28378  7.24613 0 0 0
-4.63588 -12.1148  5.36049 0 0 0
-0.639718  -4.38137   7.31788 0 0 0
-2.42734 -3.94629  6.94457 0 0 0
-5.15083 -14.3851  4.93059 0 0 0
-3.06532 -3.84257  6.81087 0 0 0
-5.36422 -15.1781  4.77766 0 0 0
0.707376 -4.86233   7.5944 0 0 0
-1.38775 -4.33254  7.16098 0 0 0
-4.02238 -15.9854  5.03977 0 0 0
 1.92173 -5.29541  7.88133 0 0 0
-3.34849 0.840928  7.57626 0 0 0
-4.95449 -3.60624  6.45062 0 0 0
-4.15376 -3.80668  6.56282 0 0 0
-6.37368 -19.6614  4.05547 0 0 0
-4.89909   -3.855  6.39075 0 0 0
 2.42697 -5.86453  7.93498 0 0 0
-2.17671 -8.46429  6.19869 0 0 0
 -5.6525 0.130601  6.78648 0 0 0
-3.54943 -4.28537  6.61774 0 0 0
-5.49424 -16.1963  4.65747 0 0 0
-5.03475  -4.1567  6.32719 0 0 0
-3.91416 -14.4131  5.17626 0 0 0
0.991888 -3.63428   7.8547 0 0 0
-5.15821 -17.2235  4.70753 0 0 0
 1.04305 -3.73399  7.84824 0 0 0
 1.99785 0.189822  8.75363 0 0 0
-1.59289 -3.24161   7.2592 0 0 0
-4.76786 -14.6907   5.0029 0 0 0
  -4.7739 -0.173521   7.04769 0 0 0
 -1.6495 -3.23676  7.24487 0 0 0
-5.51758 -18.1199  4.53829 0 0 0
-0.129844 0.0829273   8.16425 0 0 0
 -2.2033 -3.16536  7.12132 0 0 0
-5.33644 -17.2116  4.65817 0 0 0
-1.63236 -3.40254  7.22049 0 0 0
-5.50826 -18.2814  4.48101 0 0 0
 0.21697 0.082615  8.15379 0 0 0
-2.74243 -3.11755  7.00027 0 0 0
 -5.5804 -18.3727  4.45183 0 0 0
-3.61577 -3.06792  6.81537 0 0 0
0.748956 -4.24315   7.6961 0 0 0
-1.59899 -3.68712  7.17461 0 0 0
  -1.78709 -0.0160629    7.76154 0 0 0
-3.61939 -3.25943  6.77598 0 0 0
-5.06551 -16.0195  4.81059 0 0 0
-1.58569  -3.8348  7.16246 0 0 0
 -5.0401 -16.6996  4.77737 0 0 0
-2.10696 -3.73287  7.04779 0 0 0
 -10.288 -13.4478  3.83638 0 0 0
-2.78993  -3.5814  6.89542 0 0 0
-5.31703 -17.7006  4.63686 0 0 0
-3.69347 -3.41493  6.73531 0 0 0
-4.92559 -15.5547  4.89284 0 0 0
-5.71263  1.07639  6.99161 0 0 0
-1.13648 -4.15577  7.21964 0 0 0
-3.47392 -3.57344  6.76838 0 0 0
-4.47294 -13.7274  5.19448 0 0 0
 1.34071 -4.86338  7.74246 0 0 0
-4.41339 -16.2975  4.94588 0 0 0
0.0570428  -4.53954   7.47869 0 0 0
-2.88229  -3.7794  6.85025 0 0 0
-5.43932 -18.5705  4.48787 0 0 0
-5.02847 -3.29398   6.4914 0 0 0
-6.64098 -6.21204  5.64593 0 0 0
-0.512739 -0.664962   7.82191 0 0 0
-6.36066 -2.98071  6.24433 0 0 0
 -3.4917 -13.7412  5.29763 0 0 0
-4.52374  -3.4104   6.5104 0 0 0
-4.70206 -14.4245  5.06544 0 0 0
-3.64722  -3.6525  6.70317 0 0 0
-4.72706 -15.0448  5.00865 0 0 0
-8.87502 -12.5559  4.21798 0 0 0
-1.11032 -4.32172  7.22559 0 0 0
-3.41604  -15.025  5.19718 0 0 0
0.0278123  -4.62071   7.46132 0 0 0
-4.13602  -14.633  5.14555 0 0 0
-1.75079 -4.18908  7.08831 0 0 0
-2.04939 -4.10456  7.00522 0 0 0
-5.48422 -3.46535  6.35759 0 0 0
-5.03181 -15.9976  4.82804 0 0 0
 -5.91377 -0.220682    6.6945 0 0 0
-6.60336 -3.20608  6.15956 0 0 0
-5.57728 -18.2397  4.49704 0 0 0
-0.347052  -4.22905   7.41204 0 0 0
-2.40213 -4.24865  6.90792 0 0 0
-6.65846 -17.5694  4.22392 0 0 0
-4.84132 -3.68631  6.41441 0 0 0
-5.51632 -3.59912  6.33138 0 0 0
-5.20494 -17.1305  4.69433 0 0 0
  1.13583 -0.476521   8.41119 0 0 0
 1.64155 -5.44871  7.77338 0 0 0
-3.77403 -14.4554  5.17707 0 0 0
-6.60877 -3.45878  6.11463 0 0 0
 -4.62889 -0.768981   6.99047 0 0 0
0.860213 -5.47364   7.5472 0 0 0
-1.61235 -5.10643  6.97202 0 0 0
-4.09598 -14.9591  5.11908 0 0 0
0.878048 -3.52259  7.83412 0 0 0
-5.04054 -16.4413  4.79467 0 0 0
1.86767 -4.0191  8.0239 0 0 0
-9.67848 -12.9203  4.04827 0 0 0
 1.47473 -3.96314  7.93324 0 0 0
-11.3345 -19.2404  2.97002 0 0 0
   2.9423 -0.529796   8.86271 0 0 0
-1.69299 -3.19728   7.2443 0 0 0
-3.79591  -15.996  5.07697 0 0 0
-0.172788 -0.695399   8.03093 0 0 0
-1.46817 -3.29105  7.28278 0 0 0
-3.36425 -13.9022  5.32202 0 0 0
-6.74868 -1.46841  6.31019 0 0 0
 0.70544 -4.19369  7.68999 0 0 0
-9.19256 -11.8654   4.2415 0 0 0
-2.12868 -3.56011  7.07598 0 0 0
-3.22624  -14.655  5.22246 0 0 0
-2.65336 -3.43177  6.95969 0 0 0
-2.21748 -8.18539   6.3044 0 0 0
-4.58573 -1.08394   6.9396 0 0 0
-1.34847  -3.7851  7.22842 0 0 0
  -10.15 -13.0484  3.95118 0 0 0
-1.70607 -1.00044  7.46198 0 0 0
-1.56425 -3.78778  7.16801 0 0 0
-10.2244 -13.5188  3.86276 0 0 0
-3.39831 -3.34126  6.80263 0 0 0
-8.29674 -7.23286  5.08986 0 0 0
-0.741889  -4.03237   7.33635 0 0 0
-2.24046 -3.65785  7.03002 0 0 0
-10.8898 -15.5475  3.45871 0 0 0
  2.65198 -0.569697   8.79796 0 0 0
-3.71078 -3.36538  6.74351 0 0 0
-2.19999 -3.75498   7.0265 0 0 0
-4.18847 -12.7656  5.27562 0 0 0
-0.631609  -1.52409   7.67634 0 0 0
 1.66448 -4.79237  7.86188 0 0 0
-10.0174 -16.9292   3.5006 0 0 0
-3.70744 -1.65568  7.03764 0 0 0
1.84522 -4.8709 7.90259 0 0 0
-9.82544 -16.2911  3.60762 0 0 0
-3.54822  -1.9003  7.02952 0 0 0
-6.38262 -2.77189  6.26645 0 0 0
 -8.7287 -13.7811    4.107 0 0 0
-3.53501 -1.23374  7.13998 0 0 0
-1.22692 -4.08564  7.21344 0 0 0
-11.3322 -19.3423  3.00593 0 0 0
 0.857641 -0.725566   8.29433 0 0 0
-3.50935 -3.54625  6.75646 0 0 0
-3.29142 -14.5664  5.24722 0 0 0
-3.9118 -3.4656 6.67587 0 0 0
-3.80596 -3.59371  6.67792 0 0 0
-3.17222 -14.3026  5.29024 0 0 0
-2.07009 -4.03038  7.01056 0 0 0
-3.45555 -9.29329  5.70328 0 0 0
 2.57578 -1.27173  8.62101 0 0 0
-0.150256   -4.6084   7.42402 0 0 0
-9.81183 -15.7992  3.67586 0 0 0
-3.41319 -1.68029  7.10112 0 0 0
 1.30621 -5.06907  7.72417 0 0 0
-9.82146 -16.5319  3.57881 0 0 0
 -3.03868 -0.767553   7.37848 0 0 0
-6.60721 -3.07768  6.17654 0 0 0
-3.42963 -13.5418  5.29257 0 0 0
-2.16509 -4.18427  6.98027 0 0 0
-5.35769 -14.0175  4.92584 0 0 0
-1.33223 -4.41083  7.15474 0 0 0
 0.35498 -0.96259  8.11689 0 0 0
-2.94512 -4.02214  6.80128 0 0 0
-9.99586 -13.5727  3.89763 0 0 0
-0.236633 -0.741333   8.03991 0 0 0
-4.87748 -3.57552   6.4653 0 0 0
-3.17351 -13.6096  5.29967 0 0 0
-1.99736 -4.36647  6.99202 0 0 0
-5.45103 -14.9912  4.76289 0 0 0
  0.7127 -5.29384  7.53873 0 0 0
-4.01231 -4.21961  6.53643 0 0 0
-2.46491 -4.65978  6.83386 0 0 0
-8.79154 -12.1961  4.26825 0 0 0
-4.52599 -4.18262  6.41265 0 0 0
-3.34807 -14.3902  5.25628 0 0 0
 1.43045 -5.82007  7.66506 0 0 0
0.028694  1.89527  8.66522 0 0 0
-3.49477 -4.59916  6.58452 0 0 0
 1.08368 -4.26796  7.78893 0 0 0
-8.79541 -9.21091  4.64885 0 0 0
-4.1549 -2.9333 6.70117 0 0 0
-4.32029  -2.9446  6.66397 0 0 0
-0.881001     -10.8   6.24397 0 0 0
 1.83455 -2.40173  8.25926 0 0 0
 0.30281 -4.20857  7.58627 0 0 0
-4.15513 -2.46859  6.78043 0 0 0
-0.345222   -4.0847    7.4312 0 0 0
 2.59604 -2.06823  8.48082 0 0 0
-1.36301  -3.8943  7.21026 0 0 0
-9.09346  -17.633   3.6289 0 0 0
-2.77627 -2.25425  7.15686 0 0 0
-1.54614  -3.8491  7.16727 0 0 0
   1.2704 -0.851385   8.37961 0 0 0
-1.82635  -3.7941  7.11202 0 0 0
-9.74559  -11.734  4.18649 0 0 0
-1.87016 -3.79252  7.10176 0 0 0
-0.672207  -4.12845   7.34789 0 0 0
 1.23574 -4.63866  7.76431 0 0 0
-3.43555 -1.59015  7.12745 0 0 0
 1.30727 -4.69552  7.77721 0 0 0
-9.40267 -14.6584  3.80939 0 0 0
 -5.07414 -0.979916   6.64536 0 0 0
 -3.6213 -3.48753  6.74029 0 0 0
-3.57597 -15.4571  5.13649 0 0 0
 1.33388 -4.77274  7.74569 0 0 0
-7.49731 -15.2783  4.20862 0 0 0
-6.31553 -2.87973  6.27086 0 0 0
 -3.13971 -0.752308   7.35811 0 0 0
-6.51853 -2.83222  6.23175 0 0 0
 -3.4755 -13.6247   5.3395 0 0 0
 1.40185 -2.15508  8.18722 0 0 0
-1.72778 -4.01516  7.10387 0 0 0
0.760227 -2.21888  8.01786 0 0 0
-1.72067  -4.0549  7.09032 0 0 0
-3.38887  -3.6501  6.76121 0 0 0
-0.180384  -4.56825   7.42176 0 0 0
-1.84156 -11.3084  5.84284 0 0 0
-0.67047 -4.49636  7.30088 0 0 0
-5.23324 -13.9282   4.9708 0 0 0
 -1.4222 -4.30443   7.1493 0 0 0
-7.84473 -15.0314  4.16898 0 0 0
0.912905 -2.05161  8.07689 0 0 0
-3.56256 -3.78234  6.70031 0 0 0
 -8.6059 -15.3841   3.9428 0 0 0
-0.865956  -4.50966   7.25258 0 0 0
0.863361 -2.70844  7.98075 0 0 0
-0.674263  -4.57459   7.28398 0 0 0
-2.05125  -4.2482  6.99288 0 0 0
-8.38439 -10.3168  4.54277 0 0 0
 -5.5149 -3.47454  6.33646 0 0 0
-3.54917  -4.3355  6.61994 0 0 0
-7.88511  -15.175  4.13401 0 0 0
 1.96114 -2.20782  8.27129 0 0 0
-4.28901 -4.15252  6.48037 0 0 0
-9.19428 -19.0696  3.49357 0 0 0
-3.15227 -2.32221  7.06858 0 0 0
-4.55744 -4.08181  6.42039 0 0 0
-5.07958 -2.27458  6.61903 0 0 0
-5.72338 -3.82806  6.24283 0 0 0
-9.24685 -17.9307  3.54773 0 0 0
-0.758205  -2.34331   7.61136 0 0 0
-4.49978 -4.15698   6.4237 0 0 0
-3.41469 -2.33426  6.99229 0 0 0
-5.08385 -4.11873   6.3398 0 0 0
-5.62864 -4.07996  6.23159 0 0 0
-1.98703 -12.0331  5.77143 0 0 0
-4.14243  1.58999  7.52582 0 0 0
-3.39316 -4.61034   6.6115 0 0 0
 -6.0543 -10.9623  5.12398 0 0 0
-7.01404 -10.9134  4.82729 0 0 0
 1.44966 -2.91632  8.07602 0 0 0
-6.20258 -11.0923  5.07718 0 0 0
-3.78003 -3.09444  6.82871 0 0 0
-7.20023 -10.9608  4.78852 0 0 0
 1.71377 -2.92594  8.15413 0 0 0
 -7.3404 -10.9559  4.75656 0 0 0
-7.40845 -11.0607  4.74073 0 0 0
-6.86303  -10.815  4.88131 0 0 0
-5.48976 -11.2233  5.23261 0 0 0
-7.29074 -10.8327  4.78983 0 0 0
-2.23349 -12.1986  5.70638 0 0 0
-5.77589 -11.3066  5.15318 0 0 0
 -7.0954 -11.0733  4.78657 0 0 0
-2.32323 -3.53368  7.03073 0 0 0
-6.12214 -10.7481  5.12779 0 0 0
-2.63276 -3.74149  6.92359 0 0 0
-4.86791 -11.6801   5.3055 0 0 0
 2.4443 -3.6424 8.20712 0 0 0
-5.19936 -11.6342  5.23835 0 0 0
-6.83252 -11.2528  4.83591 0 0 0
-7.38011 -9.68489  4.90638 0 0 0
-5.72518 -10.9864  5.20673 0 0 0
0.732934 -4.06396   7.6939 0 0 0
-7.08238 -10.7026  4.85614 0 0 0
-0.108635  -4.18909   7.48907 0 0 0
-5.44458 -11.1875  5.25214 0 0 0
-0.492557  -4.32019   7.36181 0 0 0
-6.86608 -10.9669  4.85976 0 0 0
-1.27795  -4.4242  7.18895 0 0 0
-7.28913 -10.9189  4.77337 0 0 0
-0.418083  -4.51802   7.36913 0 0 0
-6.86023 -11.0703  4.85034 0 0 0
-6.88778 -11.0909  4.83521 0 0 0
-5.19954 -11.5075  5.27339 0 0 0
-5.12186 -11.5782  5.27194 0 0 0
-7.18673  -11.195   4.7143 0 0 0
-7.36238 -9.64842  4.90629 0 0 0
-8.73137 -12.0969  4.28357 0 0 0
-6.46124 -10.3184  5.05107 0 0 0
-7.71558 -11.9646  4.53198 0 0 0
 -5.6539 -10.9477  5.22652 0 0 0
-7.19569 -11.5378  4.70467 0 0 0
 -6.1173 -10.9482  5.10782 0 0 0
-5.27034 -11.2859  5.27792 0 0 0
-7.14924 -10.8744  4.81163 0 0 0
0.14005 2.47023 8.82233 0 0 0
-6.93935 -10.9435  4.84351 0 0 0
-2.42757   2.2249  8.06546 0 0 0
-7.16229 -10.9265  4.80012 0 0 0
-0.759073   2.34982   8.50646 0 0 0
-6.85225 -11.0002  4.85861 0 0 0
-4.87534  2.01406  7.41563 0 0 0
-6.29214 -11.1563  5.03711 0 0 0
-7.22846 -11.0669  4.77006 0 0 0
-6.10938  -10.889  5.12909 0 0 0
-5.70825 -10.9886  5.20604 0 0 0
-7.03051 -10.7628  4.85492 0 0 0
 -7.0693 -10.8421  4.83136 0 0 0
-7.57279 -7.32115  5.22144 0 0 0
-8.75503 -12.1404  4.26821 0 0 0
-6.97896 -10.9139  4.83659 0 0 0
-5.67376   -11.27  5.18122 0 0 0
-1.49242 -8.54175  6.31758 0 0 0
-7.12138 -11.0885  4.78288 0 0 0
-2.37248 -8.42948  6.09265 0 0 0
-6.35067 -11.4337  4.96313 0 0 0
-4.43782 -11.8709  5.37741 0 0 0
0.533104  -2.2907  7.70024 0 0 0
  2.13907 -0.639831   8.68487 0 0 0
-8.75942  -11.098  4.38689 0 0 0
 2.69142 -3.12183  8.44846 0 0 0
0.519785  -10.803  6.60815 0 0 0
 -2.21357 -0.914487   7.16371 0 0 0
-1.41602 -1.62412  7.56432 0 0 0
-0.248882  -1.91043   7.76178 0 0 0
-5.56691 -11.4589  5.18929 0 0 0
-1.59971 -5.22001  6.97578 0 0 0
-8.39127 -9.38534  4.70325 0 0 0
-5.13214 -11.6856  5.23504 0 0 0
-0.436876  0.193991   7.95244 0 0 0
-1.70951 -10.7413  5.80638 0 0 0
-0.549297 -0.790082   7.60892 0 0 0
-5.14097  -13.793  5.04046 0 0 0
 -1.34265 -0.973806   7.43573 0 0 0
-4.85604 -13.9273  5.09217 0 0 0
-1.01712 -1.14907  7.55717 0 0 0
-3.75059 -12.8455  5.42069 0 0 0
-0.969269  -1.42893   7.38729 0 0 0
-4.07022 -14.1506  5.23359 0 0 0
-0.369785  -1.61612   7.48399 0 0 0
-3.78819 -13.7351  5.33279 0 0 0
2.03264 -1.4438 8.50755 0 0 0
-2.74698 -2.23575  7.11206 0 0 0
-1.37502 -11.3077  5.88615 0 0 0
-1.61712 -2.84357  7.19987 0 0 0
-2.54064 -11.1882  5.70987 0 0 0
-0.283933  -2.92159   7.57768 0 0 0
-9.31574 -11.6198   4.2325 0 0 0
-2.79819 -4.20381  6.81773 0 0 0
-4.90801 -5.06263  6.20053 0 0 0
-7.59308 -17.7888   3.9721 0 0 0
-0.883308   1.09071   8.01615 0 0 0
-1.26434 -11.6976  5.85189 0 0 0
-0.943813   2.33478   8.47741 0 0 0
 -3.8401 -11.6612  5.49516 0 0 0
-3.65833 -11.1295  5.51418 0 0 0
-2.50404  2.18156  8.02654 0 0 0
-3.68204 -11.6976  5.49552 0 0 0
-1.80439  2.22706  8.25136 0 0 0
-3.59273 -11.7207  5.49928 0 0 0
-2.87202  2.17331  7.80781 0 0 0
-2.87377 -11.6945  5.61089 0 0 0
 -4.47032 -0.255091   7.10904 0 0 0
-2.80651 -11.7183  5.62059 0 0 0
-7.40395 -17.8017  3.98504 0 0 0
-0.604938  -0.20173    7.8183 0 0 0
-2.36622   -10.57  5.88173 0 0 0
 -7.6679 -19.2282  3.82537 0 0 0
 -4.91054 -0.400105   6.99418 0 0 0
-2.64747 -13.2022  5.51198 0 0 0
-6.90579 -15.9993  4.30773 0 0 0
 -3.43119 -0.334848   7.36147 0 0 0
-2.53286 -12.3957   5.6076 0 0 0
-6.44857 -14.0514  4.60936 0 0 0
 -4.13747 -0.377247   7.16462 0 0 0
 -2.2987 -10.3487  5.88732 0 0 0
-6.78216 -15.5625   4.3813 0 0 0
 -2.63135 -0.305205   7.56672 0 0 0
-2.49339  -12.304  5.62406 0 0 0
 -5.47004 -0.504172   6.56835 0 0 0
-2.51757 -13.2305   5.5294 0 0 0
-7.62216 -19.2221  3.84698 0 0 0
   1.94439 -0.0801458    8.69951 0 0 0
-2.32783 -11.7882  5.72778 0 0 0
-6.67459 -15.2408  4.40468 0 0 0
  -3.2738 -0.361248   7.38899 0 0 0
-2.30486 -11.6401   5.7503 0 0 0
-5.85213 -11.7707  4.93994 0 0 0
 -3.36125 -0.370261   7.34784 0 0 0
-2.20766 -11.0937  5.83959 0 0 0
-6.28252 -13.5642  4.71754 0 0 0
 -2.79804 -0.359396   7.51255 0 0 0
-2.41352 -13.2212  5.55544 0 0 0
-6.97734 -16.9516   4.1926 0 0 0
-5.19652 -0.54748  6.60758 0 0 0
-2.34491 -12.6573  5.63174 0 0 0
-6.93017 -16.9256   4.2077 0 0 0
-3.38231 -0.41096  7.35721 0 0 0
-2.48018 -13.9724  5.46775 0 0 0
-6.35331 -14.4998  4.55962 0 0 0
 -6.60707 -0.591605   6.45603 0 0 0
-2.29033 -12.4265  5.66038 0 0 0
-6.71321 -16.0189  4.34955 0 0 0
 -3.13879 -0.417429   7.42607 0 0 0
-2.32419 -13.1346  5.57773 0 0 0
-6.49601 -15.3035  4.44793 0 0 0
 -1.22084 -0.354112   7.85635 0 0 0
-2.17759 -11.9911  5.74943 0 0 0
-6.77923 -16.6343  4.27963 0 0 0
  1.81189 -0.209757   8.62832 0 0 0
 -2.4285 -14.2103  5.44214 0 0 0
 -2.50229 -0.423721    7.5789 0 0 0
-1.99217 -11.9245  5.78351 0 0 0
 -1.17608 -0.375853   7.86297 0 0 0
-1.95604 -11.8569  5.79968 0 0 0
-6.13477  -13.997  4.68096 0 0 0
 -6.62209 -0.664536   6.43702 0 0 0
-2.18081 -13.7306  5.55496 0 0 0
-7.26929  -18.953  3.93679 0 0 0
  -6.8328 -0.672973   6.40266 0 0 0
-2.1699 -13.699 5.54636 0 0 0
-5.97456 -13.3286  4.82739 0 0 0
 -3.26817 -0.481354   7.37433 0 0 0
 -2.2092 -14.0342  5.51353 0 0 0
-6.08868 -14.0098  4.69828 0 0 0
 -6.42469 -0.653968   6.54017 0 0 0
-2.06298 -12.9795  5.65766 0 0 0
-7.26332 -19.2594  3.87693 0 0 0
-1.91123 -11.8662  5.80874 0 0 0
-6.67579 -16.6547  4.30281 0 0 0
-2.03181 -12.9555  5.66378 0 0 0
-6.97454 -18.0082   4.0802 0 0 0
-1.85511 -11.7646  5.83898 0 0 0
-6.50097 -15.9065  4.40872 0 0 0
  -1.9145 -0.491127   7.59336 0 0 0
 -2.1458 -14.4248  5.49805 0 0 0
-7.03112 -18.4685  4.00719 0 0 0
 -1.31177 -0.564084    7.7954 0 0 0
 -1.2366 -11.5576  5.84834 0 0 0
-6.15742 -16.1481  4.47511 0 0 0
-0.477062 -0.551843   7.89798 0 0 0
-1.21939 -11.5326  5.83528 0 0 0
-5.47807 -13.0438  5.02844 0 0 0
 -3.15037 -0.673735   7.35358 0 0 0
-1.50124 -14.3463  5.66523 0 0 0
-1.15958 -11.7936  5.94423 0 0 0
-6.75927 -19.1193  4.03898 0 0 0
 -1.26178 -0.627139   7.78224 0 0 0
-1.30608 -14.2419  5.71201 0 0 0
-6.81018 -19.7196  3.94666 0 0 0
-6.13675 -0.86548  6.57199 0 0 0
-1.36982 -14.7691  5.65435 0 0 0
 -5.4084 -13.2999  5.00461 0 0 0
 -2.60364 -0.688311   7.50345 0 0 0
-8.48832 -11.0206  4.43516 0 0 0
-5.83116 -15.3088  4.63302 0 0 0
-0.429304  -0.59726   7.97344 0 0 0
-8.26752 -9.65186  4.68759 0 0 0
-5.60013 -14.2781  4.79853 0 0 0
 -2.64433 -0.698677   7.48801 0 0 0
-8.14361 -9.29447  4.76083 0 0 0
-5.79613 -15.3457  4.63283 0 0 0
 -4.46322 -0.798849   7.01264 0 0 0
-8.23921 -13.0589  4.27694 0 0 0
-5.84894  -15.554  4.62792 0 0 0
  1.13237 -0.538314   8.40444 0 0 0
 -8.1812 -12.9221  4.30772 0 0 0
-5.73931 -15.1586  4.67124 0 0 0
 -5.65066 -0.887963   6.62628 0 0 0
-7.99884 -9.67053   4.7389 0 0 0
-6.55091 -18.8565  4.10227 0 0 0
 2.30327 -0.49026  8.69619 0 0 0
-7.89028 -9.77887   4.7518 0 0 0
-5.8263 -15.656 4.60986 0 0 0
 -3.77252 -0.807424   7.18888 0 0 0
-7.87524 -9.24075  4.83038 0 0 0
 -4.16377 -0.828406    7.0848 0 0 0
-7.94112 -12.9189  4.35677 0 0 0
  2.01283 -0.620169   8.62478 0 0 0
-7.59451 -10.4889  4.71206 0 0 0
-0.442833 -0.748022   7.94364 0 0 0
-7.50366 -10.4991  4.74653 0 0 0
-7.33085 -11.5484  4.66872 0 0 0
-7.29449  -11.535   4.6748 0 0 0
-7.17415 -9.23716  4.97528 0 0 0
-7.35122 -12.8935  4.55215 0 0 0
-7.05333  -13.343  4.56625 0 0 0
-6.90044 -11.0525  4.83753 0 0 0
-7.00288 -12.8058  4.64741 0 0 0
 -5.2825 -1.20259  6.46921 0 0 0
 -6.8267 -10.5523  4.92395 0 0 0
  1.21708 -0.892923     8.353 0 0 0
-6.83969 -11.4379  4.82586 0 0 0
-6.72046 -1.28117    6.308 0 0 0
-6.75836  -10.625  4.92065 0 0 0
-3.38165  -1.1222  7.21486 0 0 0
-6.8165 -12.024 4.79981 0 0 0
  3.19669 -0.822784   8.88562 0 0 0
-6.84381 -12.5656  4.73817 0 0 0
-3.69939 -1.14499  7.13483 0 0 0
-6.56954 -9.71723  5.10973 0 0 0
-2.83518  2.16305   7.8208 0 0 0
-6.32213 -11.0935  5.03632 0 0 0
-6.41203 -12.6245  4.84172 0 0 0
-6.19131 -10.0602  5.15448 0 0 0
-6.14639 -12.3291  4.95804 0 0 0
 2.73923 -1.18701  8.70826 0 0 0
-6.00361 -10.5648  5.18043 0 0 0
-5.11372 -1.55293  6.71967 0 0 0
-6.07434  -12.241  4.98198 0 0 0
-5.97753 -10.8829  5.15658 0 0 0
-6.02942 -13.4667  4.81473 0 0 0
-5.91554 -11.9427  5.05763 0 0 0
-5.94003 -12.5615  4.96589 0 0 0
-5.88527 -12.6457  4.96947 0 0 0
-5.75559 -11.6908   5.0976 0 0 0
-5.52058 -10.4068  5.31831 0 0 0
-5.45878 -13.2966  5.01314 0 0 0
-5.42202 -13.1606  5.04089 0 0 0
-1.60579 -1.70573  7.49889 0 0 0
-5.09549 -11.1825  5.35124 0 0 0
-0.176765  -1.83824   7.75453 0 0 0
-4.58705 -11.9718  5.33975 0 0 0
-0.939876   -1.8732   7.63772 0 0 0
-4.76357  -13.993   5.1291 0 0 0
-4.56513 -12.1223  5.36319 0 0 0
-4.51739 -11.9332  5.35877 0 0 0
-4.50757  -11.901  5.36148 0 0 0
-4.40286 -11.2597  5.44119 0 0 0
-4.5078 -12.222 5.35751 0 0 0
-4.63956 -13.7029  5.18508 0 0 0
-4.34457 -10.8194  5.49054 0 0 0
-4.46242 -11.9998  5.35992 0 0 0
-4.61098 -13.5598  5.19178 0 0 0
-4.60119 -13.4645  5.21401 0 0 0
 1.53369 -1.97175  8.25602 0 0 0
-4.08346 -10.1992  5.61182 0 0 0
0.819783 -2.05237    8.077 0 0 0
-4.03216 -12.2707  5.39737 0 0 0
-3.62939 -9.31141  5.68882 0 0 0
-3.74096  -10.418  5.66231 0 0 0
-3.79532 -11.8088  5.47973 0 0 0
 -3.7221 -11.4998  5.51769 0 0 0
-3.80731 -12.7132  5.40424 0 0 0
 -6.5245 -2.46246  6.26095 0 0 0
-3.82043 -13.2555  5.35314 0 0 0
-1.20907 -2.24411  7.18642 0 0 0
-3.50453 -10.4461  5.62969 0 0 0
-2.90252 -2.36397  7.05276 0 0 0
-3.45664 -9.97611  5.71897 0 0 0
-3.47645 -2.39421  6.96339 0 0 0
-3.63753 -11.9004  5.46705 0 0 0
-3.71409 -12.6156  5.42632 0 0 0
 2.04583 -2.24316  8.34799 0 0 0
-3.70345 -12.8791  5.39973 0 0 0
-3.25046 -8.69742  5.97394 0 0 0
-3.4934 -11.595 5.52629 0 0 0
-3.74784  -14.089  5.26324 0 0 0
-3.59509 -12.9863   5.4097 0 0 0
-3.60981 -13.4168  5.36257 0 0 0
-3.66359 -14.0056   5.2815 0 0 0
 -3.5207 -13.3958   5.3673 0 0 0
-3.36405 -13.4487  5.38142 0 0 0
-2.53713 -13.7931  5.47322 0 0 0
-0.279457  -5.23748   6.87919 0 0 0
-3.24211 -13.0637  5.44247 0 0 0
-3.96406 -2.69113  6.77699 0 0 0
-3.25122 -13.3882  5.40313 0 0 0
  1.1001 -2.53204  8.04856 0 0 0
-3.22293 -13.2374  5.42406 0 0 0
-0.102176  -2.61129   7.69946 0 0 0
-2.79313 -10.5052  5.78776 0 0 0
-6.58654 -2.85097  6.15307 0 0 0
-2.68058 -9.85723  5.89943 0 0 0
-2.50636  -12.339  5.62397 0 0 0
-2.40387 -11.7417  5.70894 0 0 0
-2.59804 -14.2254  5.41863 0 0 0
-2.34735 -13.2347  5.57081 0 0 0
-2.17947 -11.9314  5.73994 0 0 0
-1.96141  -11.141  5.89822 0 0 0
-1.77112 -9.81773  6.11868 0 0 0
-1.47722 -9.89323  6.20197 0 0 0
-1.61903 -11.1269  5.99074 0 0 0
-0.87914  -9.7946  6.38534 0 0 0
-0.882929  -10.4417   6.30208 0 0 0
-0.674156  -10.3242   6.36561 0 0 0
-4.91373 -10.9006  5.37766 0 0 0
-6.92974 -10.3801  4.93697 0 0 0
0.446811 -2.80542  7.87273 0 0 0
-5.19822 -10.7062  5.37804 0 0 0
-6.65568 -3.05685  6.10798 0 0 0
-5.70845 -10.8148  5.25005 0 0 0
-2.33985 -2.91477  7.14335 0 0 0
-5.70103 -11.0533   5.1996 0 0 0
 1.25279 -2.80419   8.0508 0 0 0
-5.92236 -9.54101  5.28923 0 0 0
0.0458553  -2.85052   7.74286 0 0 0
-6.75381  -9.9164  5.02512 0 0 0
-3.42771 -2.95953  6.86702 0 0 0
-7.62149 -9.91922  4.75752 0 0 0
-5.31747 -10.9812  5.30831 0 0 0
-5.78886  -11.245  5.13844 0 0 0
-4.56535 -11.1224  5.30006 0 0 0
-7.63948  -10.215  4.75301 0 0 0
 -4.9674 -11.3081  5.34681 0 0 0
-4.94198 -11.4645  5.30697 0 0 0
-2.09431 -2.96798   7.1906 0 0 0
-4.65689 -11.6474  5.34503 0 0 0
 3.03874 -2.81907   8.5139 0 0 0
-5.76471 -9.78235  5.30236 0 0 0
 2.31961 -2.83459  8.29861 0 0 0
-4.97461 -10.1794  5.50762 0 0 0
-7.72705 -9.80438  4.76925 0 0 0
-1.14673 -2.95076  7.41609 0 0 0
-4.27622 -10.8449  5.51178 0 0 0
-1.95217 -2.97915  7.22323 0 0 0
-4.29009 -10.9554  5.49543 0 0 0
 -1.8954 -3.00211  7.23124 0 0 0
-2.28605 -11.3395  5.80976 0 0 0
-2.21796 -3.02179  7.16027 0 0 0
-7.00848 -10.5656  4.87481 0 0 0
  1.6603 -2.89992  8.10839 0 0 0
 -7.2612 -10.6314  4.79726 0 0 0
-3.78059 -3.07161   6.7422 0 0 0
-5.01905 -11.1682  5.37011 0 0 0
-1.32406 -3.00536  7.37327 0 0 0
-2.70499  -11.764  5.62867 0 0 0
-2.11312 -3.03525  7.17956 0 0 0
-3.77161 -11.6675  5.50416 0 0 0
-3.86112  -11.778   5.4759 0 0 0
-6.69138 -9.93615  5.04469 0 0 0
 -7.7662 -9.72435  4.78947 0 0 0
-6.87942 -10.0753  4.96476 0 0 0
-2.43962 -11.0395  5.71395 0 0 0
-4.67365 -10.6714  5.33145 0 0 0
0.600172 -3.05382  7.83947 0 0 0
-2.22655 -11.2696  5.82228 0 0 0
-6.91552 -10.3345  4.93444 0 0 0
-4.19265 -10.9592  5.50807 0 0 0
-6.71169 -10.6143  4.94214 0 0 0
-6.88188 -10.6206  4.90052 0 0 0
 -2.1876 -11.8101  5.75083 0 0 0
-2.44557 -11.8517  5.68273 0 0 0
-4.54307 -11.6113  5.37742 0 0 0
-5.04241 -11.5645   5.2913 0 0 0
-2.34547  -12.184  5.65744 0 0 0
-5.42878 -9.60724  5.41049 0 0 0
 -4.8992 -10.4556  5.48397 0 0 0
-6.20289  -10.229  5.12337 0 0 0
-6.73528 -10.1693  5.00168 0 0 0
-4.23845 -10.7539  5.52922 0 0 0
-5.77224 -10.4502  5.23986 0 0 0
-4.99368 -10.6336  5.43683 0 0 0
-4.40907 -10.7579  5.48418 0 0 0
-2.20746   -11.18  5.84382 0 0 0
-5.97718  -10.497  5.17309 0 0 0
-5.05258 -10.7099  5.42012 0 0 0
 2.58323 -3.37256  8.26255 0 0 0
-8.30716 -10.0049  4.62774 0 0 0
 -3.1733 -3.53074  6.82087 0 0 0
-6.76023 -10.3931  4.95985 0 0 0
0.438308 -3.45744  7.73807 0 0 0
-4.13696 -11.0351  5.52294 0 0 0
-2.06638 -11.5348     5.81 0 0 0
-5.35392 -10.9333  5.30264 0 0 0
-6.96195 -10.6279  4.88428 0 0 0
-7.18996 -10.6673   4.8224 0 0 0
-3.73827 -11.5418  5.50411 0 0 0
-1.73308 -3.63618  7.15399 0 0 0
  -3.025 -11.7372  5.56589 0 0 0
-5.81327 -3.75813   6.1629 0 0 0
 -4.7426 -11.5099  5.33099 0 0 0
 2.50789 -3.58002  8.24831 0 0 0
 -2.4185 -11.9982  5.67111 0 0 0
-2.24762  -3.7227  7.00985 0 0 0
-2.26997 -12.1043  5.69688 0 0 0
-5.93167 -9.54521  5.28559 0 0 0
-6.46538 -9.69469  5.12994 0 0 0
-6.74307 -9.65955  5.07855 0 0 0
-3.30149 -10.3438  5.69787 0 0 0
-7.24655 -9.86607  4.90289 0 0 0
-7.83407 -9.74331  4.77245 0 0 0
-4.1281 -10.611 5.55942 0 0 0
-6.37611 -10.1584   5.0895 0 0 0
-6.70589 -10.1021  5.01747 0 0 0
-6.07611 -10.2538  5.16454 0 0 0
-4.99455 -10.5216  5.44742 0 0 0
0.762996 -3.94963  7.73567 0 0 0
-6.66798  -10.159  4.98749 0 0 0
-2.11335 -4.02071  7.00332 0 0 0
-5.0313 -10.555 5.43963 0 0 0
-1.45713 -4.02169  7.18401 0 0 0
-4.50949 -10.7378  5.47557 0 0 0
 -1.0766 -4.01063  7.26174 0 0 0
-6.79716 -10.3018  4.96722 0 0 0
-3.99987 -4.08394  6.52734 0 0 0
-6.76036 -10.3392  4.97224 0 0 0
-4.84317 -4.09176  6.29845 0 0 0
-8.60776 -10.0018   4.5627 0 0 0
-6.81119  -10.394   4.9544 0 0 0
-6.78682 -10.5325  4.92952 0 0 0
-8.68809 -10.1358  4.50363 0 0 0
-5.12288 -10.9419  5.36303 0 0 0
-0.936715  -4.05416    7.2901 0 0 0
-6.91817 -10.5417  4.90828 0 0 0
 -7.1438 -10.5848  4.84831 0 0 0
 2.32719 -4.04053  8.15469 0 0 0
-6.03202 -10.9266  5.13414 0 0 0
-1.48814 -4.11666   7.1402 0 0 0
 -3.5002 -11.4949  5.55232 0 0 0
 2.35695 -4.10085  8.14024 0 0 0
-5.29009 -11.1768  5.28136 0 0 0
0.139448 -4.15741  7.52625 0 0 0
-2.30038 -11.7566  5.73535 0 0 0
 2.82631 -4.15825  8.24491 0 0 0
-2.12415 -11.8415  5.76285 0 0 0
-4.60773 -11.4133  5.37381 0 0 0
0.128899 -4.25741   7.5292 0 0 0
-7.23464 -10.8358   4.7921 0 0 0
0.820468 -4.25556  7.71844 0 0 0
-4.56426 -11.4287  5.38069 0 0 0
 2.88002 -4.22092  8.24265 0 0 0
-3.66987 -11.5988  5.50266 0 0 0
2.26468 -4.2416 8.09432 0 0 0
-4.42195 -11.4863  5.42073 0 0 0
 2.76059 -4.26669  8.20895 0 0 0
-3.75074 -11.6244  5.49634 0 0 0
-7.04931 -10.9396  4.81226 0 0 0
-4.63505 -11.4944  5.35032 0 0 0
-4.87088 -11.4679  5.31478 0 0 0
 -3.5869 -11.7648  5.49746 0 0 0
1.43648  -4.493 7.82497 0 0 0
-2.11696 -12.0546  5.73458 0 0 0
-0.870019   2.38798   8.47968 0 0 0
 -2.7404 -11.7367  5.63087 0 0 0
-2.98043  2.14238  7.79311 0 0 0
-3.49802 -11.6854  5.52722 0 0 0
-0.505739   2.33906    8.5641 0 0 0
-3.80748 -11.6776  5.49526 0 0 0
-2.63378 -3.09073  7.04036 0 0 0
-4.61799 -5.17796  6.25195 0 0 0
-7.45555 -16.6826  4.08598 0 0 0
-2.42193  -3.1349  7.08185 0 0 0
-7.56618 -17.3321  4.01089 0 0 0
-4.51412 -5.21558  6.27424 0 0 0
-6.83747 -14.3372  4.44818 0 0 0
-5.52281 -4.01374   6.2731 0 0 0
-7.20071 -15.8482  4.23112 0 0 0
-3.33312  1.43371  7.71468 0 0 0
-0.850999  -3.92783   7.33084 0 0 0
-3.36552   1.4172  7.69894 0 0 0
-1.80233 -4.02343  7.06791 0 0 0
-7.45735 -17.3233  4.04522 0 0 0
0.141609 -3.05191  7.73561 0 0 0
-5.22873  -4.1353  6.33058 0 0 0
-7.65927 -17.5362  3.98924 0 0 0
-3.17583  1.40304  7.74891 0 0 0
-4.62329 -5.47416  6.25731 0 0 0
-7.50614 -17.7234   3.9683 0 0 0
 1.98674 -3.06522  8.17665 0 0 0
-4.69092 -3.93611  6.42653 0 0 0
-7.28712 -16.4138  4.16545 0 0 0
-0.289228   1.55507   8.50635 0 0 0
-4.58363 -4.05118  6.42847 0 0 0
-7.22887 -16.6659    4.141 0 0 0
 -7.8145 -11.9577  4.52112 0 0 0
   -4.73 -4.29312  6.36451 0 0 0
-5.41114 -18.5183  4.51963 0 0 0
-7.10611 -12.6987  4.62951 0 0 0
-3.90798 -4.85277  6.45859 0 0 0
-4.34065 -13.7689  5.21013 0 0 0
 -6.1968 -11.0516  5.09163 0 0 0
-4.70478 -5.30286  6.22488 0 0 0
-4.51334 -14.7274  5.07193 0 0 0
-4.18657  1.21234  7.46778 0 0 0
-6.91817 -16.2823  4.25908 0 0 0
 -3.1637 -5.13328  6.57388 0 0 0
-6.04622 -11.4919  4.95163 0 0 0
-3.34977 -5.36723  6.50921 0 0 0
-4.32033 -14.5694  5.10803 0 0 0
-1.6885 1.30819 8.11911 0 0 0
-2.41535 -3.53481  6.99767 0 0 0
0.36302 1.41994 8.61391 0 0 0
-3.13517 -3.59052  6.82202 0 0 0
-4.95524 -4.11942  6.34001 0 0 0
-4.17926 -13.4293  5.26237 0 0 0
 -3.2788 -4.20295  6.69933 0 0 0
-5.09252 -18.6794  4.59094 0 0 0
0.630539 -3.15815  7.83354 0 0 0
-2.69668 -4.28395  6.83376 0 0 0
  -6.212 -4.64756  6.04923 0 0 0
-7.13313 -18.5707  3.98762 0 0 0
 2.45399 -3.19288  8.27296 0 0 0
 -3.3066 -4.74429  6.61991 0 0 0
-9.41337 -10.5427  4.30048 0 0 0
-2.47426 -4.94523  6.78928 0 0 0
-4.15962 -14.4999  5.15504 0 0 0
-3.94261 -5.14033  6.41947 0 0 0
-6.69223 -14.3424   4.5029 0 0 0
0.502624  -3.5444   7.7335 0 0 0
-4.85698 -5.25939  6.19026 0 0 0
-7.74552 -19.6519  3.75495 0 0 0
-8.98365 -11.5288  4.29045 0 0 0
-3.50075 -5.32159  6.47577 0 0 0
-4.94968 -18.4211  4.68191 0 0 0
-3.54632 -5.41546  6.46231 0 0 0
-4.63125 -16.1331   4.9183 0 0 0
-6.21309 -5.50441  5.88021 0 0 0
-6.72727 -14.5415  4.48349 0 0 0
-0.830701  -5.47366   7.11421 0 0 0
-4.10673 -14.3724  5.17935 0 0 0
 -5.6508 0.801063  6.96549 0 0 0
-3.72325 -5.56811  6.39503 0 0 0
-6.61786 -16.9134  4.28086 0 0 0
-5.93461 0.772375   6.8662 0 0 0
-3.55595 -2.99752  6.84047 0 0 0
0.852752   1.2197  8.69456 0 0 0
-4.06968 -3.06365  6.69831 0 0 0
-6.16977 -15.1532   4.5433 0 0 0
-5.08806  0.81138  7.14251 0 0 0
-4.17222 -3.11621   6.6684 0 0 0
-6.89815 -18.4775  4.05439 0 0 0
-0.262388   1.07542   8.41879 0 0 0
-3.46766 -3.23001  6.81916 0 0 0
-6.46981 -16.7874  4.33324 0 0 0
-2.19676 0.950979  7.91011 0 0 0
-2.91628 -3.27883  6.90811 0 0 0
-6.58857 -17.3499  4.26126 0 0 0
-1.53155 0.989407  8.09167 0 0 0
-3.05228  -3.3391  6.88254 0 0 0
-5.59708  0.70336   6.9563 0 0 0
-4.01175 -3.41939  6.67478 0 0 0
-0.271899   1.03961   8.40365 0 0 0
-2.93069  -3.7402  6.86349 0 0 0
-5.08949 -3.84292  6.38088 0 0 0
-3.87586 -12.8575   5.3692 0 0 0
-3.60239 -3.90752  6.67072 0 0 0
-4.69206 -16.7114  4.86247 0 0 0
-2.06807 -3.47742  7.10467 0 0 0
  -5.664 -4.03307  6.23072 0 0 0
-6.71498 -14.9024  4.44166 0 0 0
-3.56656 -3.99214   6.6559 0 0 0
-4.42897 -16.6962  4.93085 0 0 0
-4.63518  -4.0498  6.41021 0 0 0
-4.31217 -14.9527  5.07518 0 0 0
-2.73537 0.776712  7.73598 0 0 0
0.0168314  -4.11147     7.524 0 0 0
-6.89979   -19.57  3.92429 0 0 0
-2.58236 0.779934  7.77336 0 0 0
0.343768 -4.11273  7.60074 0 0 0
-3.1358 -4.1998 6.72668 0 0 0
-4.35231 -16.3437  4.96716 0 0 0
-3.48812 -4.34306  6.62798 0 0 0
-4.37649  -16.694  4.91169 0 0 0
-1.93546 -4.33031  7.01245 0 0 0
-4.33352 -16.4343  4.94351 0 0 0
-4.36002 -4.43792  6.41497 0 0 0
-4.50593 -16.0505  4.95032 0 0 0
-3.38903 -4.43887  6.63497 0 0 0
-3.65532  -13.329  5.35064 0 0 0
-2.36461 -13.1265  5.58039 0 0 0
-3.16966 -4.52735  6.66516 0 0 0
-4.26331 -14.9598  5.08812 0 0 0
-1.28521 -4.50191  7.15175 0 0 0
-4.31647 -16.4671  4.96551 0 0 0
-3.48128 -4.59086  6.59196 0 0 0
-6.63511 -14.6566  4.48145 0 0 0
-2.34552   -13.64  5.44303 0 0 0
-3.28202 -4.62046  6.63385 0 0 0
-4.90097 -17.9815  4.70694 0 0 0
-0.122831  -3.45916   7.59131 0 0 0
-3.59034 -4.62941  6.56685 0 0 0
 -3.6835 -4.63503  6.54809 0 0 0
-6.34661 -17.6243  4.29927 0 0 0
-9.52865 -10.2796  4.33446 0 0 0
-4.73969 -4.67069  6.30317 0 0 0
-3.91166  -13.315  5.33195 0 0 0
-4.91008 0.551627  7.15762 0 0 0
-5.51658 -4.74624  6.16431 0 0 0
 1.04459 0.897503  8.65917 0 0 0
 1.26783 -4.60807  7.77524 0 0 0
-4.26671 -4.78006   6.4059 0 0 0
-6.93478  -15.282  4.35435 0 0 0
-1.62125 -4.78777  7.01285 0 0 0
-4.18451 -16.0732  5.01556 0 0 0
-1.69333 -4.90145  6.97482 0 0 0
-5.14094  -5.0484  6.18334 0 0 0
-4.18274 -14.6966   5.1043 0 0 0
-9.17338 -10.5378  4.34808 0 0 0
-4.61509 -5.03605  6.27692 0 0 0
-3.81395 -12.8797  5.38367 0 0 0
-9.12925 -9.74295  4.47618 0 0 0
-4.37217 -5.04638   6.3323 0 0 0
-4.51591 -16.1949  4.92726 0 0 0
1.52774 -3.2702 8.03377 0 0 0
-5.11724 -5.12552  6.17508 0 0 0
-5.83114 -5.29129  5.99764 0 0 0
-6.42796 -18.5572  4.16664 0 0 0
-5.53102 -5.36669  6.04796 0 0 0
-5.53219 -14.6744   4.7831 0 0 0
-5.11875 -12.2771  5.20745 0 0 0
-3.67882 -5.38488  6.43439 0 0 0
-3.43177 -12.7099  5.42041 0 0 0
-8.48062 -9.86683  4.60601 0 0 0
-4.00398  -5.4576  6.35089 0 0 0
-4.06151 -14.2568  5.17633 0 0 0
-6.11561 -5.53191   5.8995 0 0 0
-8.74714 -11.1402  4.37984 0 0 0
-3.05397 -5.55431  6.55803 0 0 0
 -4.6808 -17.2009  4.83409 0 0 0
-1.72711 -5.54028  6.87884 0 0 0
-3.93098 -15.1078  5.11906 0 0 0
-3.26019 -5.62368  6.49821 0 0 0
-3.97816 -13.9715  5.24625 0 0 0
-5.32892 0.406532  7.00281 0 0 0
-6.44388 -2.81582  6.27144 0 0 0
-6.66817 0.304343  6.59674 0 0 0
-4.47051 -2.96339   6.6386 0 0 0
-5.68362 -3.70007  6.27346 0 0 0
0.799444 -3.54461  7.80277 0 0 0
-5.56499 -15.7058  4.68108 0 0 0
  -5.055 -3.73588   6.4217 0 0 0
-5.35887 -14.8526  4.79824 0 0 0
-3.09576 -3.73602  6.81742 0 0 0
-6.16438 -18.6044  4.23162 0 0 0
-2.52662 -3.74888  6.94369 0 0 0
-6.22877 -18.9746  4.17352 0 0 0
-2.98232 -3.78322  6.83381 0 0 0
-4.66454 -11.9635  5.13494 0 0 0
-4.13955 -3.90162  6.55875 0 0 0
-6.70192 -14.6427  4.46145 0 0 0
 -4.1692 -3.98733  6.52626 0 0 0
-5.00825 -18.2064  4.65284 0 0 0
-2.63303 -4.12432  6.86287 0 0 0
-5.64249 -4.31677   6.2012 0 0 0
-5.17237 -14.6107  4.89925 0 0 0
 -2.6003 -4.24163  6.86003 0 0 0
-5.14292  -14.517  4.91828 0 0 0
-3.44636 -4.28589  6.64727 0 0 0
-3.97639 -14.7579   5.1381 0 0 0
 1.3261 -3.4021 7.96401 0 0 0
-4.08103 -4.36306  6.50165 0 0 0
-4.65837 -4.44541  6.34987 0 0 0
-3.55758 -13.9094  5.27961 0 0 0
-1.78829 -4.42251  7.03983 0 0 0
-10.5592 -17.2223  3.34779 0 0 0
-5.67081 -4.04389  6.17556 0 0 0
-5.82642 -4.55961   6.1203 0 0 0
-6.89207 -17.4578  4.17887 0 0 0
-2.17215 -3.96804  7.00467 0 0 0
-5.51944 -4.64151  6.17139 0 0 0
-5.70932 -12.1068  5.08736 0 0 0
-3.12238 -3.99802  6.77877 0 0 0
-5.45026 -4.65813  6.17963 0 0 0
-5.65088 -11.8606  5.13304 0 0 0
-1.16163 -3.95859  7.25382 0 0 0
-6.33452 -4.68895  6.00173 0 0 0
-6.11889 -14.1646   4.6787 0 0 0
 1.89926 -4.54713  7.95956 0 0 0
0.257288 -4.56473  7.51159 0 0 0
-3.80022 -15.0425  5.12351 0 0 0
-5.69379 -12.9736  4.96545 0 0 0
-4.08054 -4.73245   6.4502 0 0 0
-3.99775 -15.2401  5.10631 0 0 0
 2.68679 -3.40836  8.30345 0 0 0
-4.87677 -4.77468  6.26524 0 0 0
-1.25023 -4.72789  7.12382 0 0 0
-3.78216 -14.9864  5.14162 0 0 0
-3.65142 -4.78112  6.52654 0 0 0
-3.24335 -4.77618  6.60423 0 0 0
-0.475938  -3.90122   7.42593 0 0 0
 -3.7438 -4.85411  6.50211 0 0 0
 -5.8447 -12.6937  4.97377 0 0 0
-4.25582 -4.91065  6.37804 0 0 0
  -5.61262 -0.0739571    6.83042 0 0 0
-3.45469 -4.95174  6.55277 0 0 0
  -5.84832 -0.0849359    6.78169 0 0 0
  2.1304 -4.92804  7.97183 0 0 0
-2.40886 -5.05858  6.78986 0 0 0
-6.64812  -18.745   4.1022 0 0 0
-3.39209 -4.15593  6.67708 0 0 0
-5.71943  -5.3584  6.00824 0 0 0
 1.42206 0.288286  8.61643 0 0 0
-4.51949 -5.35971  6.25656 0 0 0
-4.40176 -12.0132  5.39502 0 0 0
 1.82756 -4.02023  8.00573 0 0 0
-3.80049 -5.36477  6.40857 0 0 0
-4.48796 -5.46673  6.23324 0 0 0
0.646103 -4.00548  7.69488 0 0 0
-2.52166 -5.45348  6.69826 0 0 0
-5.66609 -5.53996  5.99414 0 0 0
-1.57742 -5.46194   6.9268 0 0 0
-3.99141 -15.3647  5.09077 0 0 0
-4.69707 -11.4952  5.34068 0 0 0
-3.11053 -5.50395   6.5497 0 0 0
-3.77774 -14.5237  5.18924 0 0 0
-9.35221 -11.0984  4.26888 0 0 0
-0.933044  -5.56384   7.07955 0 0 0
-3.87919 -16.0885  5.04483 0 0 0
0.451181 -5.57255  7.42575 0 0 0
-3.33009 -13.4276  5.31161 0 0 0
-2.89567 -5.64699  6.58921 0 0 0
-3.40535 -13.8939  5.31086 0 0 0
-5.17513 -3.45979  6.42703 0 0 0
